# .PCD v0.7 - Point Cloud Data file format
VERSION 0.7
FIELDS x y z rgb
SIZE 4 4 4 4
TYPE F F F F
COUNT 1 1 1 1
WIDTH 399
HEIGHT 1
VIEWPOINT 0 0 0 1 0 0 0
POINTS 399
DATA ascii
-0.37476373 0.21210995 1.4284926e-13 0
-0.37483445 0.21637623 1.4348353e-13 1
-0.37490532 0.2206433 1.4411794e-13 2
-0.37497613 0.22491126 1.4475247e-13 3
-0.37504697 0.22918037 1.4538716e-13 4
-0.37511781 0.23345073 1.4602206e-13 5
-0.37518874 0.23772252 1.4665715e-13 6
-0.37525952 0.24199592 1.4729247e-13 7
-0.37533045 0.24627107 1.4792807e-13 8
-0.37540147 0.25054818 1.4856397e-13 9
-0.37547252 0.25482735 1.4920018e-13 10
-0.37554362 0.25910875 1.4983671e-13 11
-0.37561482 0.2633926 1.5047361e-13 12
-0.37568608 0.26767907 1.5111092e-13 13
-0.3757571 0.27196822 1.5174857e-13 14
-0.37582844 0.27626032 1.5238672e-13 15
-0.37589988 0.28055555 1.5302532e-13 16
-0.37597111 0.28485402 1.5366437e-13 17
-0.37604243 0.28915587 1.5430392e-13 18
-0.37611401 0.29346135 1.5494405e-13 19
-0.37618545 0.29777056 1.5558471e-13 20
-0.37625703 0.30208373 1.5622597e-13 21
-0.36631089 -0.29744387 -1.4458908e-14 620
-0.36632687 -0.29647604 -1.4602787e-14 621
-0.36634293 -0.29551196 -1.4746129e-14 622
-0.36635882 -0.29455146 -1.488892e-14 623
-0.36637476 -0.29359463 -1.5031189e-14 624
-0.36639056 -0.29264122 -1.5172925e-14 625
-0.36640641 -0.29169139 -1.5314156e-14 626
-0.36642209 -0.2907449 -1.545487e-14 627
-0.36643785 -0.28980184 -1.5595093e-14 628
-0.36645341 -0.28886199 -1.5734814e-14 629
-0.36646882 -0.28792539 -1.5874046e-14 630
-0.36648428 -0.28699201 -1.6012807e-14 631
-0.36649984 -0.28606185 -1.6151112e-14 632
-0.36651522 -0.28513476 -1.6288948e-14 633
-0.36653042 -0.28421065 -1.6426322e-14 634
-0.36654571 -0.28328958 -1.6563257e-14 635
-0.36656103 -0.28237149 -1.6699764e-14 636
-0.36657619 -0.28145626 -1.683583e-14 637
-0.36659124 -0.28054386 -1.6971466e-14 638
-0.36660653 -0.27963439 -1.7106711e-14 639
-0.36662146 -0.27872753 -1.7241517e-14 640
-0.36663643 -0.27782342 -1.7375932e-14 641
-0.36665151 -0.27692202 -1.750996e-14 642
-0.36666638 -0.27602318 -1.7643588e-14 643
-0.36668107 -0.27512687 -1.7776819e-14 644
-0.36669612 -0.27423319 -1.7909712e-14 645
-0.36671075 -0.27334192 -1.8042202e-14 646
-0.36672568 -0.27245316 -1.8174364e-14 647
-0.36674023 -0.27156669 -1.830613e-14 648
-0.36675507 -0.27068266 -1.8437586e-14 649
-0.36676949 -0.26980084 -1.8568661e-14 650
-0.36678427 -0.26892141 -1.8699435e-14 651
-0.36679882 -0.26804411 -1.8829863e-14 652
-0.36681327 -0.267169 -1.895996e-14 653
-0.36682776 -0.26629603 -1.9089746e-14 654
-0.36684209 -0.26542515 -1.9219205e-14 655
-0.36685649 -0.26455635 -1.9348372e-14 656
-0.366871 -0.26368958 -1.9477253e-14 657
-0.36705032 -0.26287004 -1.9623331e-14 658
-0.36775163 -0.26219171 -1.9825094e-14 659
-0.36845645 -0.26150984 -2.0027901e-14 660
-0.36916506 -0.26082432 -2.0231783e-14 661
-0.36987749 -0.26013517 -2.0436755e-14 662
-0.37059376 -0.25944233 -2.0642833e-14 663
-0.37131402 -0.25874573 -2.0850043e-14 664
-0.37203804 -0.25804526 -2.1058372e-14 665
-0.37276611 -0.25734091 -2.1267861e-14 666
-0.37349826 -0.2566326 -2.1478519e-14 667
-0.37423462 -0.25592029 -2.1690378e-14 668
-0.3749752 -0.25520393 -2.1903449e-14 669
-0.37572002 -0.25448343 -2.2117748e-14 670
-0.37646925 -0.25375876 -2.2333299e-14 671
-0.37722257 -0.25302976 -2.2550082e-14 672
-0.37798068 -0.25229651 -2.276819e-14 673
-0.37874332 -0.25155887 -2.2987602e-14 674
-0.37951055 -0.25081673 -2.3208339e-14 675
-0.38028228 -0.25007007 -2.34304e-14 676
-0.3810589 -0.24931881 -2.3653844e-14 677
-0.38184029 -0.24856287 -2.3878674e-14 678
-0.38262662 -0.24780221 -2.4104916e-14 679
-0.38341802 -0.24703674 -2.4332602e-14 680
-0.38421437 -0.24626635 -2.4561731e-14 681
-0.3850159 -0.245491 -2.4792343e-14 682
-0.38582265 -0.24471061 -2.5024455e-14 683
-0.38663468 -0.24392509 -2.5258092e-14 684
-0.38745216 -0.24313436 -2.5493284e-14 685
-0.38827512 -0.24233836 -2.5730052e-14 686
-0.38910332 -0.24153693 -2.596838e-14 687
-0.38993761 -0.24073011 -2.6208385e-14 688
-0.39077717 -0.23991765 -2.6449986e-14 689
-0.39162296 -0.23909964 -2.6693312e-14 690
-0.39247459 -0.23827589 -2.6938329e-14 691
-0.39333197 -0.23744628 -2.7185045e-14 692
-0.39419582 -0.2366108 -2.7433566e-14 693
-0.39506564 -0.23576929 -2.7683839e-14 694
-0.39594194 -0.23492169 -2.7935953e-14 695
-0.39682457 -0.23406787 -2.81899e-14 696
-0.39771354 -0.23320773 -2.8445701e-14 697
-0.39860955 -0.23234123 -2.8703463e-14 698
-0.39951193 -0.23146819 -2.8963113e-14 699
-0.40042132 -0.23058851 -2.9224754e-14 700
-0.40133774 -0.22970213 -2.9488409e-14 701
-0.40226099 -0.22880888 -2.9754062e-14 702
-0.40319145 -0.22790869 -3.0021785e-14 703
-0.40412942 -0.22700141 -3.0291646e-14 704
-0.40507492 -0.22608697 -3.0563656e-14 705
-0.40602756 -0.22516517 -3.0837786e-14 706
-0.40698826 -0.22423598 -3.1114173e-14 707
-0.40795657 -0.22329919 -3.1392786e-14 708
-0.40893304 -0.22235473 -3.167372e-14 709
-0.40991732 -0.22140242 -3.1956937e-14 710
-0.41091007 -0.22044218 -3.2242553e-14 711
-0.41191113 -0.21947384 -3.2530571e-14 712
-0.41292065 -0.21849725 -3.2821033e-14 713
-0.413939 -0.21751229 -3.3114008e-14 714
-0.41496593 -0.2165188 -3.3409483e-14 715
-0.41600186 -0.21551664 -3.3707547e-14 716
-0.4170469 -0.21450564 -3.4008234e-14 717
-0.41810152 -0.21348566 -3.4311638e-14 718
-0.41916513 -0.21245655 -3.4617688e-14 719
-0.42023876 -0.21141812 -3.492657e-14 720
-0.42132202 -0.21037021 -3.5238241e-14 721
-0.42241514 -0.20931268 -3.5552768e-14 722
-0.42351848 -0.20824531 -3.5870226e-14 723
-0.42463237 -0.20716794 -3.6190685e-14 724
-0.42575648 -0.20608041 -3.6514133e-14 725
-0.42689148 -0.20498249 -3.6840688e-14 726
-0.42803749 -0.20387401 -3.7170398e-14 727
-0.42919436 -0.2027548 -3.7503268e-14 728
-0.43036285 -0.2016246 -3.7839438e-14 729
-0.43154255 -0.20048325 -3.8178882e-14 730
-0.43273416 -0.19933054 -3.852173e-14 731
-0.43393764 -0.19816624 -3.8868011e-14 732
-0.43515372 -0.19699012 -3.9217859e-14 733
-0.43638185 -0.19580196 -3.9571231e-14 734
-0.43762296 -0.19460154 -3.9928296e-14 735
-0.43887684 -0.19338861 -4.0289054e-14 736
-0.44014364 -0.19216296 -4.0653567e-14 737
-0.44142416 -0.1909243 -4.1021989e-14 738
-0.44271845 -0.18967238 -4.1394361e-14 739
-0.44402635 -0.18840697 -4.1770701e-14 740
-0.44534892 -0.18712772 -4.2151202e-14 741
-0.44668567 -0.18583447 -4.2535833e-14 742
-0.4480373 -0.18452688 -4.2924733e-14 743
-0.44940439 -0.18320459 -4.3318041e-14 744
-0.45078668 -0.18186741 -4.3715753e-14 745
-0.45218477 -0.18051501 -4.4118002e-14 746
-0.45359877 -0.17914703 -4.4524856e-14 747
-0.45502934 -0.17776318 -4.4936453e-14 748
-0.45647681 -0.17636313 -4.5352892e-14 749
-0.45794117 -0.17494652 -4.5774226e-14 750
-0.45942315 -0.173513 -4.6200602e-14 751
-0.46092263 -0.17206228 -4.6632061e-14 752
-0.46244079 -0.17059386 -4.7068831e-14 753
-0.46397737 -0.16910745 -4.7510932e-14 754
-0.46553293 -0.16760266 -4.7958497e-14 755
-0.46710783 -0.16607907 -4.8411636e-14 756
-0.46870264 -0.16453628 -4.8870501e-14 757
-0.47031781 -0.16297382 -4.9335217e-14 758
-0.47195396 -0.16139126 -4.980594e-14 759
-0.473611 -0.15978822 -5.0282715e-14 760
-0.47528994 -0.15816414 -5.0765764e-14 761
-0.476991 -0.15651861 -5.125519e-14 762
-0.47871491 -0.15485108 -5.1751179e-14 763
-0.48046181 -0.15316114 -5.2253801e-14 764
-0.48223233 -0.15144821 -5.2763248e-14 765
-0.48402777 -0.14971164 -5.3279785e-14 766
-0.48584771 -0.14795104 -5.3803424e-14 767
-0.48769313 -0.1461658 -5.4334395e-14 768
-0.48956475 -0.14435528 -5.4872888e-14 769
-0.4914633 -0.14251885 -5.5419119e-14 770
-0.49338907 -0.14065595 -5.5973198e-14 771
-0.49534273 -0.13876595 -5.6535319e-14 772
-0.49564314 -0.13724974 -5.6800989e-14 773
-0.49450856 -0.13607699 -5.6806576e-14 774
-0.49337998 -0.13491015 -5.6812167e-14 775
-0.49225709 -0.13374925 -5.6817727e-14 776
-0.49113965 -0.13259417 -5.6823229e-14 777
-0.49002776 -0.13144484 -5.6828704e-14 778
-0.4889212 -0.13030116 -5.6834132e-14 779
-0.48782024 -0.12916298 -5.6839577e-14 780
-0.48672459 -0.12803026 -5.6844998e-14 781
-0.48563403 -0.12690294 -5.6850378e-14 782
-0.48454878 -0.1257809 -5.6855758e-14 783
-0.48346835 -0.12466413 -5.6861071e-14 784
-0.48239282 -0.12355254 -5.6866343e-14 785
-0.48132259 -0.12244591 -5.6871662e-14 786
-0.48025686 -0.12134436 -5.6876907e-14 787
-0.47919604 -0.12024768 -5.6882152e-14 788
-0.47813973 -0.11915588 -5.6887343e-14 789
-0.4770883 -0.11806879 -5.6892554e-14 790
-0.47604126 -0.11698645 -5.6897717e-14 791
-0.47499874 -0.11590869 -5.6902874e-14 792
-0.47396055 -0.11483552 -5.690799e-14 793
-0.47292671 -0.11376685 -5.6913079e-14 794
-0.47189721 -0.11270258 -5.6918168e-14 795
-0.47087178 -0.11164267 -5.6923209e-14 796
-0.46985063 -0.11058702 -5.6928258e-14 797
-0.46883342 -0.10953563 -5.6933252e-14 798
-0.46782032 -0.10848835 -5.6938253e-14 799
-0.46681133 -0.1074451 -5.6943267e-14 800
-0.4658061 -0.10640593 -5.6948227e-14 801
-0.46480468 -0.10537072 -5.6953167e-14 802
-0.46380702 -0.10433942 -5.6958087e-14 803
-0.46281305 -0.10331197 -5.6962979e-14 804
-0.46182284 -0.10228825 -5.6967885e-14 805
-0.46083605 -0.10126831 -5.697273e-14 806
-0.45985293 -0.10025199 -5.6977589e-14 807
-0.45887327 -0.099239267 -5.698242e-14 808
-0.45789707 -0.098230079 -5.6987252e-14 809
-0.45692423 -0.097224392 -5.6992049e-14 810
-0.4559547 -0.096222125 -5.699684e-14 811
-0.45498845 -0.095223241 -5.7001611e-14 812
-0.45402527 -0.094227731 -5.7006341e-14 813
-0.45306534 -0.093235448 -5.701107e-14 814
-0.45210868 -0.092246294 -5.7015827e-14 815
-0.45115489 -0.091260388 -5.7020523e-14 816
-0.45020407 -0.090277605 -5.7025192e-14 817
-0.44925636 -0.089297801 -5.7029888e-14 818
-0.44831142 -0.08832106 -5.7034537e-14 819
-0.44736949 -0.087347217 -5.7039205e-14 820
-0.44643024 -0.086376317 -5.7043834e-14 821
-0.4454937 -0.085408278 -5.7048441e-14 822
-0.44455996 -0.08444301 -5.7053056e-14 823
-0.44362894 -0.083480485 -5.7057657e-14 824
-0.44270051 -0.082520671 -5.7062252e-14 825
-0.44177455 -0.081563555 -5.7066805e-14 826
-0.440851 -0.080609113 -5.7071325e-14 827
-0.43993032 -0.079657033 -5.7075912e-14 828
-0.43901172 -0.078707635 -5.7080419e-14 829
-0.43809566 -0.077760659 -5.7084938e-14 830
-0.43718189 -0.076816127 -5.7089438e-14 831
-0.43627051 -0.075873934 -5.7093944e-14 832
-0.43536133 -0.07493408 -5.709843e-14 833
-0.4344545 -0.073996477 -5.7102929e-14 834
-0.43354973 -0.073061161 -5.7107402e-14 835
-0.43264699 -0.07212811 -5.7111833e-14 836
-0.43174633 -0.071197204 -5.7116258e-14 837
-0.43084797 -0.070268311 -5.7120717e-14 838
-0.42995146 -0.069341548 -5.7125149e-14 839
-0.42905691 -0.068416834 -5.712956e-14 840
-0.42816427 -0.067494124 -5.7133951e-14 841
-0.42727345 -0.066573389 -5.7138329e-14 842
-0.42638463 -0.065654472 -5.7142733e-14 843
-0.42549765 -0.064737402 -5.7147131e-14 844
-0.42461222 -0.063822299 -5.7151468e-14 845
-0.42372864 -0.062908895 -5.7155838e-14 846
-0.42284673 -0.06199725 -5.7160182e-14 847
-0.42196652 -0.061087288 -5.7164532e-14 848
-0.42108786 -0.060179014 -5.7168862e-14 849
-0.42021078 -0.059272379 -5.7173186e-14 850
-0.41933528 -0.058367316 -5.7177509e-14 851
-0.41846126 -0.057463784 -5.7181825e-14 852
-0.41758862 -0.056561839 -5.7186115e-14 853
-0.41671762 -0.055661239 -5.7190438e-14 854
-0.41584787 -0.054762147 -5.7194727e-14 855
-0.41497946 -0.053864464 -5.719901e-14 856
-0.41411242 -0.052968096 -5.7203299e-14 857
-0.4132466 -0.052073102 -5.7207568e-14 858
-0.41238204 -0.051179383 -5.7211831e-14 859
-0.41151863 -0.050286964 -5.7216073e-14 860
-0.41065645 -0.04939571 -5.7220328e-14 861
-0.40979552 -0.04850556 -5.7224597e-14 862
-0.40893549 -0.047616679 -5.7228819e-14 863
-0.4080767 -0.046728797 -5.7233074e-14 864
-0.40721887 -0.045842022 -5.723731e-14 865
-0.40636206 -0.044956282 -5.7241538e-14 866
-0.40550607 -0.044071637 -5.7245726e-14 867
-0.40465119 -0.043187812 -5.7249961e-14 868
-0.40379718 -0.042304941 -5.7254182e-14 869
-0.402944 -0.041422997 -5.725839e-14 870
-0.40209174 -0.040541824 -5.7262619e-14 871
-0.40124002 -0.039661668 -5.7266779e-14 872
-0.40038928 -0.038782138 -5.7270988e-14 873
-0.39953935 -0.037903294 -5.7275216e-14 874
-0.39868996 -0.037025306 -5.7279397e-14 875
-0.3978413 -0.036147919 -5.7283598e-14 876
-0.3969931 -0.035271339 -5.7287745e-14 877
-0.39614561 -0.034395278 -5.7291926e-14 878
-0.39529878 -0.033519708 -5.7296127e-14 879
-0.3944523 -0.032644831 -5.7300281e-14 880
-0.39360648 -0.031770345 -5.7304476e-14 881
-0.39276105 -0.030896386 -5.730865e-14 882
-0.3919161 -0.03002285 -5.7312824e-14 883
-0.39107135 -0.029149879 -5.7316958e-14 884
-0.39022726 -0.028277062 -5.7321152e-14 885
-0.38938326 -0.027404785 -5.7325293e-14 886
-0.38853973 -0.026532654 -5.7329473e-14 887
-0.38769639 -0.025660899 -5.7333627e-14 888
-0.38685331 -0.024789343 -5.7337795e-14 889
-0.38601047 -0.023917997 -5.7341962e-14 890
-0.38516769 -0.023046907 -5.7346102e-14 891
-0.38432518 -0.02217586 -5.7350277e-14 892
-0.38348272 -0.021304961 -5.7354437e-14 893
-0.38264039 -0.020434121 -5.7358605e-14 894
-0.38179806 -0.019563343 -5.7362765e-14 895
-0.38095567 -0.018692663 -5.7366906e-14 896
-0.38011327 -0.017821921 -5.7371053e-14 897
-0.37927097 -0.016951021 -5.7375227e-14 898
-0.37842837 -0.016080203 -5.737936e-14 899
-0.3775858 -0.015209139 -5.7383528e-14 900
-0.37674308 -0.014337924 -5.7387695e-14 901
-0.37590018 -0.013466504 -5.7391863e-14 902
-0.37505701 -0.012594952 -5.7396016e-14 903
-0.37421364 -0.011723086 -5.7400184e-14 904
-0.37336996 -0.01085096 -5.7404344e-14 905
-0.3725259 -0.0099785831 -5.7408485e-14 906
-0.37168157 -0.0091057718 -5.7412652e-14 907
-0.37111458 -0.0079325791 -5.7501306e-14 908
-0.37114483 -0.0061023771 -5.7773386e-14 909
-0.37117562 -0.0042538228 -5.8048232e-14 910
-0.37120643 -0.0023870862 -5.8325747e-14 911
-0.37123781 -0.00050131837 -5.8606115e-14 912
-0.37126952 0.0014036244 -5.8889342e-14 913
-0.37130126 0.0033277571 -5.9175382e-14 914
-0.37133357 0.0052720769 -5.9464457e-14 915
-0.3713662 0.0072366549 -5.9756541e-14 916
-0.37139919 0.0092219124 -6.0051702e-14 917
-0.37143254 0.011228265 -6.035e-14 918
-0.37146622 0.013256082 -6.0651482e-14 919
-0.37149999 0.015305527 -6.095615e-14 920
-0.37153441 0.017377622 -6.1264219e-14 921
-0.37156922 0.019472547 -6.1575684e-14 922
-0.37160438 0.021590732 -6.1890604e-14 923
-0.37163994 0.023732645 -6.2209047e-14 924
-0.37167594 0.025898822 -6.253111e-14 925
-0.37171233 0.028089691 -6.2856838e-14 926
-0.37174889 0.030305497 -6.3186232e-14 927
-0.37178618 0.032547452 -6.351957e-14 928
-0.37182388 0.03481565 -6.3856797e-14 929
-0.37186179 0.037110373 -6.4197928e-14 930
-0.37190041 0.039432891 -6.454324e-14 931
-0.37193954 0.041783448 -6.4892719e-14 932
-0.37197891 0.04416227 -6.5246372e-14 933
-0.37201872 0.04657032 -6.5604362e-14 934
-0.37205938 0.04900863 -6.5966899e-14 935
-0.37210023 0.051477097 -6.6333881e-14 936
-0.37214169 0.053976785 -6.6705512e-14 937
-0.37218368 0.0565084 -6.7081892e-14 938
-0.37222624 0.059072629 -6.7463125e-14 939
-0.37226933 0.061670184 -6.7849311e-14 940
-0.37231305 0.064301863 -6.8240579e-14 941
-0.3723574 0.066968456 -6.8637038e-14 942
-0.3724021 0.069670379 -6.9038721e-14 943
-0.3724477 0.072409205 -6.9445934e-14 944
-0.37249368 0.075185001 -6.9858609e-14 945
-0.37254035 0.077999078 -7.0276982e-14 946
-0.37258768 0.08085227 -7.0701169e-14 947
-0.37263566 0.083745532 -7.113132e-14 948
-0.37268421 0.086679548 -7.1567508e-14 949
-0.37273374 0.089656018 -7.2010038e-14 950
-0.37278375 0.092675164 -7.2458898e-14 951
-0.3728348 0.095738828 -7.2914405e-14 952
-0.37288636 0.098847337 -7.337656e-14 953
-0.37293848 0.10200178 -7.3845505e-14 954
-0.37299174 0.10520421 -7.4321639e-14 955
-0.37304556 0.10845495 -7.4804915e-14 956
-0.37310055 0.11175609 -7.5295733e-14 957
-0.37315613 0.11510807 -7.579408e-14 958
-0.37321243 0.11851226 -7.6300159e-14 959
-0.37326992 0.1219709 -7.6814382e-14 960
-0.37332815 0.12548456 -7.7336758e-14 961
-0.37338734 0.12905501 -7.7867576e-14 962
-0.3734476 0.13268396 -7.8407109e-14 963
-0.3735089 0.13637294 -7.8955566e-14 964
-0.37357101 0.14012311 -7.9513104e-14 965
-0.37363428 0.14393672 -8.008008e-14 966
-0.37369865 0.14781539 -8.0656741e-14 967
-0.37376425 0.15176107 -8.1243368e-14 968
-0.3738308 0.1557752 -8.1840154e-14 969
-0.37389854 0.15986003 -8.2447449e-14 970
-0.37396759 0.16401789 -8.3065614e-14 971
-0.37403771 0.16825023 -8.3694838e-14 972
-0.37410918 0.17255981 -8.4335547e-14 973
-0.37418208 0.17694899 -8.4988108e-14 974
-0.37425637 0.18142003 -8.5652846e-14 975
-0.37433192 0.18597503 -8.6330045e-14 976
-0.37440896 0.190617 -8.7020181e-14 977
-0.37448734 0.19534813 -8.772355e-14 978
-0.37456733 0.20017178 -8.8440689e-14 979
-0.37464902 0.20509088 -8.917203e-14 980
-0.37473238 0.21010843 -8.9918023e-14 981
-0.37481725 0.21522707 -9.0679017e-14 982
-0.37490377 0.22045015 -9.1455523e-14 983
-0.3749924 0.22578228 -9.2248285e-14 984
-0.3750827 0.2312258 -9.3057587e-14 985
-0.37517479 0.23678459 -9.3884007e-14 986
-0.3752692 0.24246374 -9.472837e-14 987
-0.37536529 0.24826562 -9.5590921e-14 988
-0.37546384 0.25419632 -9.6472668e-14 989
-0.37556443 0.26025906 -9.7374033e-14 990
-0.37566715 0.26645881 -9.8295748e-14 991
-0.37577257 0.27280146 -9.9238753e-14 992
-0.37588009 0.27929068 -1.002035e-13 993
-0.37599048 0.28593352 -1.0119114e-13 994
-0.3761031 0.29273394 -1.0220213e-13 995
-0.37621883 0.29969987 -1.032378e-13 996
