# .PCD v0.7 - Point Cloud Data file format
VERSION 0.7
FIELDS x y z
SIZE 4 4 4
TYPE F F F
COUNT 1 1 1
WIDTH 1503
HEIGHT 1
VIEWPOINT 0 0 0 1 0 0 0
POINTS 1503
DATA ascii
4.2619562 -5.8660336 -0.17701353
4.2636752 -5.9040866 1.2332603
4.256269 -5.8536797 0.71819782
4.2556677 -5.8532972 0.46904346
4.2513933 -5.8389935 0.2182457
4.2277985 -5.797739 1.213506
4.2042422 -5.7039871 0.47535476
4.1688604 -5.559351 -0.23058583
4.1730137 -5.6211433 0.59486085
4.1694431 -5.6042862 0.24605562
4.1670699 -5.593935 0.12986192
4.1619353 -5.5556703 0.017354803
4.1614962 -5.5685639 -0.10676081
4.1608796 -5.5934234 0.8251037
4.1521068 -5.52527 0.48291123
4.0724883 -5.3005881 1.0147343
4.0699348 -5.2793798 0.80319017
4.0725241 -5.3186612 0.38632038
4.0628953 -5.2455101 0.077832624
4.0633259 -5.2676082 -0.036044631
4.0633993 -5.2787127 -0.15269934
4.0611844 -5.2772112 1.1174341
4.052506 -5.2461457 -0.030957462
3.9730828 -4.9763699 0.13008906
3.9732723 -5.0122981 -0.07940758
3.9664364 -4.9494934 0.68871969
3.9700356 -5.002172 0.50482571
3.968477 -4.9936142 0.41209993
3.9667075 -4.9796391 0.31947199
3.9655981 -4.976202 0.22600797
3.8700411 -4.6817589 0.59920144
3.8702312 -4.6947446 0.43561247
3.8687878 -4.6748319 0.35492361
3.8660235 -4.6660318 0.10402122
3.8655021 -4.6731915 0.013087495
3.7731817 -4.375658 0.24517031
3.7712417 -4.3860884 0.090518691
3.7697806 -4.3836045 0.81117505
3.7693725 -4.3708811 0.53089792
3.7685699 -4.3964944 0.45877433
2.1493754 -5.7271738 1.3857523
0.61085427 -7.9419632 2.4521184
1.8491187 -5.7988153 1.5774339
0.55751568 -7.9176702 2.4533482
2.9291484 -3.8661606 0.77542794
1.6709604 -5.9345422 1.163185
0.46194431 -7.8503523 2.4499621
0.44690821 -7.8377452 2.448981
0.36776313 -7.7813706 2.4465833
0.36401343 -7.6807256 2.4222214
1.3637061 -5.9626608 1.3461285
1.2673602 -6.0085025 1.3616625
1.2363356 -6.028439 1.5344803
2.8327196 -3.7412715 0.65291756
1.1271857 -6.0413513 1.2129904
-0.1576882 -7.1482735 1.2075604
-0.16921975 -7.0736089 2.1214981
-0.29428056 -6.8262639 1.6346512
-0.3035914 -6.6008706 1.174512
-0.3214772 -6.5936499 1.3903661
-0.35585299 -6.6028385 1.3943393
-0.39757404 -6.4655237 2.2809873
-0.38923508 -6.4596982 2.0438893
-0.50779885 -6.2563486 0.95490956
-0.55613571 -6.2755394 0.95770556
-0.59037775 -6.2348552 0.95729917
-0.61499035 -6.1398497 0.95417798
-0.62674302 -6.1257 2.2620034
-0.62976259 -6.1073556 1.8047563
-0.5422169 -6.0338607 0.94660974
2.212522 -3.731575 0.28909671
1.761611 -4.0887413 0.098025136
-0.65045494 -6.0319171 2.249568
-0.65216672 -6.0351868 2.0197945
-0.65526152 -6.0377111 1.7992185
1.9354959 -3.9324248 0.58184719
1.8009771 -4.0296488 0.39511281
-0.68680292 -5.9275932 2.2384181
-0.69134361 -5.9329495 2.0109899
-0.68575746 -5.9285994 1.7894003
-0.71167189 -5.8395905 2.0003936
-0.71277374 -5.8403997 1.7821484
-0.7254321 -5.8266068 2.228941
-0.73114187 -5.8093681 2.2271791
-0.73252314 -5.7907128 1.9969627
-0.72881967 -5.7879395 1.7779658
-0.75179148 -5.7392559 2.2195847
-0.74813968 -5.7383175 1.9920994
-0.74507308 -5.7360468 1.7739909
2.4258788 -3.4284177 0.71195847
-0.73136592 -5.6408496 2.1979353
-0.67080718 -5.5996861 1.9562781
-0.69070297 -5.6136947 1.749598
1.9671957 -3.6763918 0.74206793
0.54765147 -4.521183 1.7129557
0.52097428 -4.5392537 1.4153147
1.077343 -4.1716499 -0.27814749
1.0199692 -4.1962624 -0.29538354
0.3552154 -4.5856695 1.7691439
0.2430719 -4.6255689 1.8023233
0.26574016 -4.6127629 1.627942
0.26704004 -4.6118584 1.4674342
-0.038713742 -4.7189021 1.8848271
0.86737454 -4.1301379 0.32025403
-0.37168738 -4.8313284 1.9829742
1.575606 -3.6976275 0.76113218
-0.68534172 -4.93889 2.0759268
0.50555623 -4.2590823 0.28679737
1.5368721 -3.6834826 0.76253045
-0.93093807 -5.0192289 2.1482975
-1.0199808 -5.0487108 2.1746166
-1.0044481 -5.0410089 1.1277049
1.5925947 -3.6355262 0.75826573
1.5322226 -3.6240199 0.76084381
1.4716995 -3.610935 0.7634176
-1.1835089 -4.9217157 0.33047172
-0.2499785 -4.4435043 0.71014386
-0.61758363 -4.6210246 0.18380813
-1.3300209 -4.8625832 2.2279975
-1.3172545 -4.8387904 1.9940002
-1.316605 -4.8381948 1.7753134
-1.3276826 -4.8001475 0.52996218
-0.30704629 -4.2973537 0.0536259
-0.0042218314 -4.0618458 -0.053242244
-1.9283105 -3.0482666 2.2452722
-1.9197875 -3.048039 2.0111446
0.31706363 -2.798701 -0.36308405
-1.9291613 -3.0306976 2.2449493
-1.923526 -3.0307832 2.0115688
-1.926252 -3.030282 1.7896658
-1.9232272 -3.0294871 1.5711818
-1.9279444 -2.995944 2.011708
0.54723758 -2.7401597 -0.039944209
0.57727575 -2.734848 -0.15895787
0.51551592 -2.7355368 0.20013432
0.52370572 -2.7331529 0.079629682
-1.9236927 -2.9341278 0.52070165
-1.5513535 -2.9029045 0.33226442
0.34396413 -2.7321525 -0.35406443
-1.9638029 -2.9278312 2.25177
-1.9477605 -2.9271307 2.0148335
0.38824409 -2.7180746 -0.34138212
0.48345983 -2.7004607 -0.3143658
-1.963735 -2.8394363 2.249625
-1.9708729 -2.8405144 2.0186298
0.9255783 -2.6321018 -0.18924309
0.74146062 -2.6394243 0.11606706
0.97694498 -2.620245 -0.17465948
-1.8767241 -2.7988238 2.2241092
0.74967307 -2.6311629 0.23036672
-1.8230294 -2.778338 2.208482
-1.8094782 -2.7260871 2.2037082
-2.0240343 -2.7362456 1.8043433
-1.814973 -2.6405931 2.2040517
0.92894053 -2.5353229 -0.18731008
-1.8280268 -2.5894971 2.2072144
-1.8538095 -2.5642385 0.52126187
-1.8531152 -2.5383656 2.213933
-1.304431 -2.4910977 0.34531027
-1.927706 -2.4700892 2.004039
0.89224869 -2.4387491 -0.19752915
-1.8797547 -2.434833 2.2210937
-2.1182032 -2.4335508 1.8215274
-2.1191292 -2.4328728 1.597542
-2.1163838 -2.4319932 1.3772086
-0.17384508 -2.4363689 0.69181734
-2.0290999 -2.363672 2.0286801
0.87263197 -2.3939726 -0.20329936
0.66355801 -2.3922601 0.67519939
-1.9112103 -2.3302059 2.2301788
-2.0653684 -2.3273079 2.0376053
-1.9464009 -2.2768312 2.2404637
0.84828275 -2.3393726 -0.21070562
-1.9548415 -2.2414286 2.2431324
-2.2196016 -2.1359899 1.1693945
-1.9884468 -2.1340349 2.2538791
-2.027086 -2.0430386 2.0309649
-2.0075531 -2.0262587 2.2610877
-2.0335596 -2.0246911 2.0328307
-2.0307329 -1.9887705 2.26841
-2.0482776 -1.9334742 2.274616
-2.0456967 -1.9340317 2.0374336
0.76629305 -2.175981 0.23061861
0.77135199 -2.1561017 0.11853579
0.76513773 -2.1405215 -0.23833902
0.40717727 -2.0928376 -0.33989117
-2.092288 -1.8388435 2.2895184
-2.0709093 -1.8413836 2.0455947
0.3346284 -2.0743592 -0.36075389
0.32394671 -2.0409 -0.36485332
-2.1388054 -1.7606266 2.3049965
-2.1538544 -1.7404487 2.309891
-2.2624006 -1.7086322 2.3415475
-2.1252418 -1.7258202 2.0617864
-2.12781 -1.7071365 2.0629492
0.42084947 -1.9895121 -0.33973691
-2.3205283 -1.6255311 2.3608556
0.55573696 -1.9980587 -0.30183369
0.58859593 -1.992697 -0.29290643
-2.3005064 -1.53329 2.3588536
-2.3076103 -1.5324415 2.1119952
0.68866193 -1.9682961 -0.26613069
-2.3739021 -1.5031277 2.1290061
-2.431288 -1.4552873 2.144582
0.67023921 -1.9420502 0.097296521
0.69137788 -1.9395033 -0.26669601
-2.4425879 -1.4339197 2.1481135
-2.2885768 -1.4398825 2.3595934
0.4857924 -1.8739982 -0.32684362
0.4260031 -1.8528392 -0.34445542
-2.2378628 -1.3681779 -0.38867247
-2.4769487 -1.3296884 2.1605747
-2.392966 -1.324352 -0.18150316
-2.2339869 -1.3306947 -0.3891826
-2.233963 -1.3351381 2.349411
-2.2194512 -1.2998041 2.3472037
0.77570176 -1.8581494 -0.2475294
-2.5105155 -1.2239825 2.1732829
-2.230299 -1.2403934 2.353452
0.83127671 -1.8408668 -0.23318841
0.83976901 -1.8332009 -0.23129667
0.88885945 -1.815671 -0.21884854
-2.2232575 -1.1459099 2.3569579
-2.2192283 -1.1275443 2.3569508
-2.1879411 -1.0383496 2.3539181
-2.6286852 -0.93386453 2.2162123
0.89515048 -1.7422628 -0.2218484
0.38415948 -1.5963792 -0.22984976
-2.6602414 -0.82186913 2.2301431
-2.1758566 -0.92518705 2.3582654
0.87012297 -1.6884724 -0.23241799
0.86597842 -1.6777996 -0.23431453
-2.6829622 -0.73162228 2.2410123
-2.1517673 -0.83423895 2.3582606
0.86183465 -1.6381527 -0.23837732
-2.7109797 -0.63874429 2.2535448
-2.1264627 -0.78273249 2.3552601
0.87595278 -1.6131604 -0.23647867
0.70672446 -1.5539067 -0.28685874
-2.734164 -0.56758833 2.2637179
0.47876474 -1.4761038 -0.35457405
-2.0979424 -0.73236567 2.3514447
0.46057695 -1.4596088 -0.36080202
0.43545774 -1.429639 -0.37000665
-2.0625775 -0.62560064 2.3506513
0.47723743 -1.3866599 -0.36240587
-2.0403013 -0.53431487 2.3525956
-2.8385515 -0.27087471 2.3094225
0.49858078 -1.3375881 -0.36102876
-2.0156729 -0.50302726 2.3487899
-2.8591266 -0.21892397 2.3181906
-1.9777257 -0.4370071 2.344733
-2.8807647 -0.12045067 2.3310039
-2.8535023 -0.038405132 2.3315294
0.53893119 -1.2389749 -0.35960972
-1.956835 -0.32528222 2.3499916
-2.8249159 -0.002910458 2.3280115
-2.7898552 0.076029509 2.3268943
-1.9280533 -0.23602062 2.3514285
-1.9185473 -0.21961851 2.350625
0.57910883 -1.1519808 -0.35790479
-2.7413228 0.17265099 2.3246219
0.60762465 -1.140801 -0.35165566
-1.8907862 -0.12978031 2.3528945
-2.7039089 0.27365485 2.3256733
-1.8356371 -0.031023648 2.3494616
-1.8184861 -0.018074946 2.3464787
-2.6667058 0.37490827 2.3272109
-3.1279933 0.58641672 1.3111253
0.60119206 -1.0339283 -0.36509031
-1.856634 0.070735611 -0.39830279
-1.8162959 0.062889196 2.3553061
-2.6226158 0.47323611 2.3273423
-2.6356771 0.50298887 2.3332839
-1.689105 0.10699701 2.3278427
0.68504173 -0.96739876 -0.35142669
-1.7419358 0.17306969 2.3494701
-2.5743909 0.56962341 2.3267765
-3.2271955 0.90922415 2.2043095
-1.7814733 0.26618522 -0.40044788
0.6988703 -0.93892545 -0.35138065
-2.8235564 0.79567158 -0.31810185
-1.7196935 0.24553864 2.3528557
-1.7165711 0.26491228 2.3545227
-2.5316796 0.66866708 2.3281162
-2.5177343 0.68580294 2.3269663
-2.4865563 0.76666576 2.3292325
0.71892333 -0.84217256 -0.35853773
-1.6365373 0.37131935 2.3481762
-1.6235988 0.38564026 2.3468421
-3.3710439 1.3075775 2.2677369
-0.56692773 -0.1402746 -0.37978846
-3.369458 1.3628325 2.2728374
-1.6424634 0.47194508 -0.39519629
-2.3997574 0.86693537 2.3221166
-1.5786229 0.46750391 2.3467331
-3.408875 1.4691739 2.2904229
-2.3744605 0.97577542 2.3296502
-3.4161327 1.5593778 2.3007941
-1.57734 0.56555033 -0.39304695
0.76507688 -0.73389161 -0.36157116
-1.5215181 0.54250145 2.3430834
0.78956962 -0.73566729 -0.35532588
-1.513984 0.55965829 2.3436661
-2.7231648 1.311551 -0.33681273
-3.3563302 1.6705353 2.3016422
-3.3190806 1.7072192 2.2989352
-3.5278711 1.8385696 1.3984841
-3.5198162 1.863988 1.3990912
-1.4676156 0.66221398 2.3471723
-3.5407586 1.906725 1.4028345
-3.287241 1.7762721 2.3006985
-2.2428892 1.1734635 2.3265777
-2.618731 1.4370427 -0.3332127
0.81684953 -0.64053887 -0.36216161
-1.4717565 0.766581 -0.39435694
-1.4258158 0.74614382 2.3495603
-3.2223318 1.8547984 2.2979071
-1.4249822 0.76762372 2.3526084
-3.2165861 1.8808604 2.2997696
-3.5023887 2.1571338 1.7305958
0.87595296 -0.58969116 -0.35549936
-3.1736548 1.9730537 2.3026094
-1.30667 0.82507885 2.3331861
-2.1411583 1.3639541 2.3306165
-3.1286917 2.0643084 2.305259
0.87765062 -0.52716982 -0.36456811
-1.315688 0.89752489 2.3467155
-3.1090822 2.0816665 2.303915
-3.3200371 2.2303011 1.4023424
-1.3504138 0.95846081 -0.39398795
-1.319806 0.96773028 2.3588836
-2.049788 1.4584874 2.3250115
-3.02317 2.1152472 2.2932599
-3.206816 2.2795568 1.3964148
-2.4526563 1.7841297 0.21680786
-3.0168955 2.1716993 2.2988093
-1.2645782 1.0600706 -0.39139014
-3.0151107 2.2624166 2.3092475
-3.167846 2.3784916 1.3988998
-2.3207142 1.811413 -0.050388731
-1.6770692 1.3666497 -0.22752726
-2.5242536 1.9826214 -0.073969863
-1.5671976 1.3142256 -0.21230957
-1.2397316 1.0722624 2.3573105
-2.9218545 2.2933135 -0.11887515
0.97806638 -0.45420471 -0.35263577
-1.219478 1.0809355 2.3540795
0.99039972 -0.43701589 -0.35257787
-2.9364548 2.3618722 2.3081818
-1.435068 1.3067496 0.27561978
-2.9240434 2.3841302 2.3088539
-1.1576824 1.1689402 -0.38710696
-1.1761148 1.1886079 2.3623216
-1.3124576 1.3494992 -0.1883879
-1.1243798 1.1970277 2.352035
-2.8263261 2.4691935 2.3033841
-1.0815499 1.2585053 2.3530741
-2.7934783 2.5711339 2.3109133
-1.3107849 1.449754 0.97657531
-1.3027397 1.4683902 0.97691637
1.0787328 -0.34498399 -0.34788585
-3.3841019 3.1143966 0.79599208
-1.0092636 1.2734126 2.3395631
-1.7674123 1.8647147 2.3287523
-2.4709198 2.444406 0.19700325
-2.6745894 2.618768 -0.42173922
1.0819181 -0.32064986 -0.35133496
-2.7182627 2.6409662 2.3078015
-3.4040091 3.2009041 0.79754817
-1.0394877 1.363147 -0.39031103
-2.7041507 2.6620467 2.3082807
-1.0275373 1.359043 2.3588867
-3.4470661 3.2920163 1.8128304
-3.4231217 3.2878633 0.79910934
-1.0233458 1.3797295 2.3616812
-3.4546044 3.3493421 0.80046552
-1.9581105 2.1572657 0.22773717
-3.49897 3.4064677 1.8275645
-3.4868312 3.4012175 1.4814575
-3.4671066 3.3959939 0.80134022
-2.9047382 6.6361885 2.1282709
0.19346677 2.4386017 2.3710155
0.22539006 2.4582069 2.3703413
-0.31777501 3.2116635 2.3544462
0.10550291 2.6975744 0.30358842
1.8364472 0.31462535 -0.33198377
-0.23241982 3.2640953 -0.24398018
1.5085418 0.79801911 -0.33212331
0.28512532 2.5030801 2.3712175
-0.29252151 3.3880255 -0.26042098
-2.6241486 6.7381721 1.2952034
-0.063776225 3.1488326 0.52972412
1.8946539 0.32204828 -0.32431307
-2.430424 6.7417107 -0.33088812
0.38171098 2.5602827 2.3694785
-0.81771111 4.340064 2.3367722
-2.4137669 6.7781563 -0.3325066
-0.70083761 4.2343926 -0.37273461
-2.4191334 6.7921972 1.6976677
-2.2601452 6.6497598 0.48268425
-0.58678782 4.1517167 -0.35648122
-2.3136134 6.8299537 1.290561
-2.2962077 6.854331 1.6967124
-1.7270917 6.0189776 0.12415073
-2.1116476 6.6265664 -0.3070372
1.9498487 0.38981208 -0.33112496
-1.8717923 6.2467995 2.3975103
-1.6993748 6.0333643 0.12443083
-1.9681996 6.4653935 -0.2888999
0.47973591 2.6491315 2.3758907
-2.2217515 6.8764982 1.2903388
-1.5502629 5.8728566 -0.22764786
1.9757373 0.38807353 -0.32678071
-1.5369116 5.8423591 2.3081212
-0.52200615 4.322669 -0.36897108
0.53528774 2.6663456 2.3716888
-2.0911677 6.9132905 1.6916853
1.9988844 0.42990994 -0.33297214
-1.4860238 6.0430665 0.13030945
-1.6390795 6.3056035 -0.26182777
-2.0185392 6.9161282 2.0966854
-2.0265341 6.9498963 1.2886735
-1.9005331 6.7917786 -0.30812386
-0.41459891 4.3839078 -0.36781973
0.5890848 2.7213657 2.3773065
-1.9951146 6.9517345 1.6903881
-1.9250023 6.8959846 -0.31653863
-1.1896971 5.7283549 0.49992362
-1.3856139 6.0554538 0.13272159
0.67777056 2.7184131 -0.35119686
0.17851724 3.5542955 2.3604724
-0.30936524 4.4485765 -0.3673864
-1.8254285 6.998239 1.6864748
-1.8255724 7.0107007 1.2863972
2.0785484 0.45986867 -0.32834649
0.68532765 2.7792993 2.3778102
0.73940277 2.7241747 2.3561893
-0.3265419 4.649271 2.3397632
-1.708333 7.0562758 2.0929954
-1.6982833 7.0483022 1.6850392
-1.6922798 7.0503516 1.284982
-0.69132894 5.3521771 -0.15051933
1.8207017 0.99205059 -0.32980755
-1.1207998 6.1521435 2.3190868
-0.79852122 5.6546345 -0.17683494
-1.5940639 7.0821443 1.2841513
-0.93431592 5.9397635 0.14981328
-1.532626 7.0735264 0.089061685
-1.4875925 7.010499 -0.30433869
-0.10501952 4.5385141 -0.36349282
0.77827597 2.9200118 2.4004807
-1.4984375 7.1049809 1.6811821
0.88789088 2.8378356 -0.34994447
1.8858261 1.0261503 -0.32901454
-0.92543346 6.239027 2.3168337
-1.4067194 7.1372032 2.0840814
-1.4000825 7.134841 1.679595
-0.0025706992 4.6080632 -0.36437052
-1.3236582 7.086164 0.88137746
2.2043042 0.5572179 -0.33426565
0.4883391 3.7520745 2.3672225
0.10160956 4.621583 -0.35947144
-1.2122169 7.2092533 1.6783745
-0.71188325 6.3555036 2.3186367
1.0791012 2.9127159 -0.34540915
2.264312 0.57828075 -0.33158541
0.99024743 3.0467095 2.4052374
-1.1155869 7.2300239 2.0783799
-1.1197078 7.2486448 1.6781565
3.2605879 -1.4038268 0.63892752
-0.61800194 6.4400492 2.3249834
-1.0246954 7.2826924 1.6774511
0.68998611 3.8319652 2.3631425
0.10783666 5.023603 2.368907
1.0819423 3.1188087 2.4127352
-0.87969476 7.2375398 0.88186967
0.17830448 5.0544763 2.3686485
-0.89553779 7.3221626 1.6760231
-0.85315728 7.2478776 1.2755344
-0.49254385 6.5314484 2.3304601
-0.81218272 7.238627 1.2740837
-0.7904225 7.2698612 1.2754129
0.41864306 4.7548699 -0.35534817
-0.78913563 7.3305893 1.672776
-0.39823431 6.5463014 2.3262992
0.29303935 5.1115704 2.3698704
-0.82911658 7.5649867 2.1042545
-0.74217057 7.3874245 1.6762208
0.48658282 4.782958 -0.35464168
-0.96873701 7.9644856 1.7372534
-1.0571641 8.2387114 -0.3757945
2.4576063 0.50579679 -0.29007015
1.2904493 3.0286913 2.3641169
-1.0904913 8.3190575 1.7741268
1.2785395 3.1002276 2.3845537
-1.1409134 8.5073776 2.2383089
-1.1139703 8.4601822 1.787907
-1.2596244 8.864604 2.2891827
-1.1395922 8.6692142 0.034731578
0.57632571 4.8221421 -0.35405773
-1.4003522 9.2912674 1.8744328
1.3878522 3.0382826 -0.34103417
-1.2682827 9.0741491 2.3159726
-1.4867173 9.587019 1.9046888
-1.811112 10.545161 2.004319
-0.11053935 6.6495247 2.3238316
-1.9363565 10.949458 2.0459747
-0.80670828 8.3876791 -0.37741911
0.72733903 4.8417501 -0.34832892
-0.69283432 8.3964396 -0.3739028
-1.206196 9.7190266 -0.010229419
0.79257995 4.8752189 -0.34869689
1.1096946 4.0577092 2.3738751
-0.59702545 8.44841 -0.37438112
-1.8826433 11.698333 1.0005654
3.265255 -1.1546078 0.54180378
1.5764161 3.1137137 -0.33959433
-0.52222055 8.4557085 -0.37228677
0.87866545 4.9226341 -0.34966344
-0.4067634 8.4568691 -0.36835659
1.5836753 3.2470527 2.3914719
-0.37319914 8.4697189 -0.36818275
0.98273426 4.923562 -0.34476805
-1.5981225 11.85423 1.5623782
-1.5913382 11.855275 1.0032057
-0.30316132 8.4876394 -0.36716992
0.89617836 5.2534752 2.3515408
-1.7423464 12.37571 1.596184
-1.5794212 11.957914 1.005805
-0.30578324 8.7034712 -0.3837623
1.3493822 4.1590109 2.3770716
2.4776587 1.2542233 -0.31824249
3.2771573 -0.99620074 0.41991851
-0.33983096 9.4634552 2.3241887
-1.6274436 13.363073 2.2630949
1.8484075 3.2443767 0.3266896
-1.6225401 13.671488 2.2923219
-2.0341449 14.932269 1.7554674
-2.0924516 15.287326 1.7779441
1.7848029 3.6315539 0.073791154
1.5604014 4.2806826 2.3896456
-1.5252123 13.710035 2.2934251
1.206821 5.4438381 2.3696053
-1.982105 15.319272 1.7782582
-1.8389174 14.965844 -0.24510205
-1.4388937 13.783045 2.2981708
-1.3916987 13.80753 2.2993147
-1.289308 13.831383 2.2990429
-1.2439389 13.86209 2.3008773
-1.1984284 13.892669 2.3027122
1.9974018 3.4375279 2.4070888
-1.1072736 13.954408 2.3064826
-1.002735 13.971694 2.3057215
-0.87989801 13.924196 2.2983546
-1.3013078 15.44277 1.7766522
1.7072587 5.0342875 -0.32666102
-0.76956534 13.917997 2.2953234
-0.21974596 12.115553 2.1088543
1.1671834 7.2731566 2.360584
-0.0072267507 11.857464 2.0793486
1.2125407 7.3443012 2.3708084
1.2364992 7.3759885 2.3752384
1.2933855 7.4057631 2.3781149
0.20614287 11.941965 2.0833471
1.3860871 7.4215698 2.3773861
0.31448066 11.946721 0.99999583
2.3508348 3.6133142 0.31957233
2.304539 3.8959217 0.30647999
1.4790926 7.4355483 2.3764863
2.3695371 3.69611 0.54655546
1.5347286 7.4725661 2.3809066
0.50937539 12.04754 2.0882061
2.4386733 3.5473251 2.407676
1.4365368 8.2430334 -0.29870448
1.5934916 7.4967651 2.3831034
2.1358447 5.144043 0.24916141
2.4756024 3.6458035 2.4336982
2.5671082 3.4219975 0.33120096
2.6062438 3.3229771 0.33612132
2.3641582 4.8484831 0.26543576
1.145287 11.168255 1.9918747
2.3544466 5.020597 0.25769994
2.6099916 3.8911698 0.54656321
1.4526459 10.207552 1.8928554
2.3920395 5.2416744 -0.038416907
1.5249575 10.030581 1.8744271
2.658453 3.8461485 0.54726976
2.8022008 3.2314503 -0.29881456
2.4938922 5.178823 0.25252688
1.8470446 9.0276327 2.2026477
1.9146429 8.8390198 2.1758904
2.7767205 3.7083151 2.4369276
2.9062393 3.2566228 -0.29951233
3.035161 2.3195419 2.025218
2.8632393 3.5266411 2.3809333
3.0649049 2.3517332 0.38512903
2.8822415 3.5256422 2.3799074
3.1496339 1.8533751 1.8859738
3.1739516 2.1003344 -0.2891472
3.207752 1.8247234 1.8756015
3.2728369 1.6357991 1.6503673
3.3611803 1.5551804 0.42390788
3.3805969 1.5734682 1.797585
3.4283841 1.4072616 0.28852364
3.4863446 1.5018382 1.7745391
3.5033057 1.4386075 1.7558132
3.5251772 1.3006287 1.7152114
3.5515945 1.2523603 1.7007456
3.5793209 1.1713336 1.6767397
3.6411302 1.0398533 1.6377451
3.6678076 1.0863676 0.96634597
3.7677524 0.059556276 0.30762416
3.7932372 -1.0625744 0.38829124
3.7814195 1.0678717 1.6457592
3.7950561 0.26969692 0.48500574
3.8309815 0.44128931 0.47745651
3.8375649 1.2143888 1.6890039
3.8557332 1.6690896 1.8221864
3.8603117 1.1775409 1.5299866
3.8618221 1.1718856 1.3864031
3.8629932 1.1595496 1.2450924
3.8549466 0.44870773 0.68964165
3.8823347 1.7232841 1.838326
3.8611286 0.33258167 0.6864754
3.8552451 -0.20123853 0.67172509
3.8668833 -0.047569565 0.67602938
3.948096 1.7577744 1.8493294
3.94226 1.2623591 1.5523899
3.8733873 -0.73630154 0.33761764
3.9743683 1.7634187 1.8514282
3.9576526 1.2806597 1.2672764
3.95855 1.2654781 1.1245419
3.8770835 -0.77010709 0.34286749
3.9702411 1.3027582 1.271302
3.9322181 0.26889664 0.38505346
3.9462826 0.31828815 -0.15405212
4.0141315 1.7588764 1.6785716
3.9122729 -0.38081536 0.43795016
4.0549803 1.730147 1.3471776
4.0500078 1.6226326 1.1747166
4.0691414 1.7736788 1.5174446
4.0709033 1.7755095 1.3553541
3.9433076 -0.32874817 0.35396793
4.0800076 1.7814821 1.8589829
3.9983373 0.45922396 0.79836321
4.0071764 0.33771878 0.27492583
4.1476011 1.804222 1.8674678
4.0348668 0.069973826 -0.087835044
4.1755681 1.8210461 1.8732249
4.0782976 0.46501672 0.36896715
4.0800219 0.46001923 0.26010433
4.0606627 -0.077942282 0.14251742
4.2822509 1.8216559 1.8771337
4.156497 0.45800737 0.58487922
4.1642332 0.45778412 0.14984632
4.1604052 0.45953479 0.90794909
4.1623564 0.4612034 0.80034411
4.1734905 0.45859957 0.14958535
4.0929008 -0.29829317 0.09890759
4.1656785 0.07790418 0.11054121
4.3649302 1.5536233 1.8028628
4.3464565 -1.5424913 0.40113831
4.3839426 -1.5708688 0.56288862
4.7781043 -1.3477945 0.20523347
4.9167967 -1.3448406 0.17960696
5.1770248 -1.1410697 0.091452286
5.2708211 -1.3481271 1.0123646
5.4607639 -1.6480739 0.10961748
5.3149486 -1.7760868 1.1069038
5.3556495 -1.7574699 1.0501854
5.3607945 -1.7562059 0.91828054
5.3576379 -1.7582234 0.8531512
5.389256 -1.7452347 0.72904932
5.3851585 -1.7477521 0.66473991
5.3620257 -1.763708 0.34815708
5.3740482 -1.7591374 0.28048462
5.3406458 -1.7732801 0.72522718
5.3355298 -1.7762234 0.66292363
5.3419986 -1.774807 0.53972238
5.2945023 -1.8026314 0.23382337
5.2284412 -1.8266276 1.0772755
5.1426468 -1.8661805 0.93105882
5.2524309 -1.8180045 0.77677584
5.2382307 -1.8252398 0.71736628
5.2082987 -1.8393141 0.65838277
5.2657881 -1.8148274 0.54321271
5.23281 -1.8331314 0.37029085
5.2429738 -1.8294005 0.30854326
5.2449155 -1.8302653 0.24671027
5.3139243 -1.8008353 0.16281305
5.0417266 -1.9185574 0.70245409
5.1089792 -1.8889639 0.65483385
5.0525184 -1.9152464 0.6028825
5.0497499 -1.9166886 0.55289322
5.0252643 -1.9295697 0.45487973
5.0706935 -1.9111193 0.3445746
5.058835 -1.9189962 0.23811296
4.7761483 -2.6396842 0.5321101
4.6684713 -3.1047049 0.92794448
4.653996 -3.09815 0.40725362
4.6657453 -3.1116951 0.68176198
4.6729259 -3.1555848 0.31009293
4.671566 -3.1559041 0.48109126
4.5926147 -3.0988395 0.49226925
4.8830247 -3.3273029 0.70218039
5.1594195 -3.8441737 0.52777898
5.3333983 -4.1414409 0.17669192
6.8344064 -8.9469213 2.422349
6.8394961 -8.9613228 1.3406539
6.8146462 -9.0638161 1.6168418
6.8431449 -9.12747 1.35589
6.8736525 -9.2450008 2.4947138
6.8829937 -9.2666073 2.2099359
6.8884692 -9.2788486 1.9277463
6.886312 -9.2750111 1.6476033
5.5880527 -6.442956 -0.061970964
6.8731856 -9.3016367 1.6501126
5.1089215 -5.4438524 -0.27074048
6.8153319 -9.3428841 1.374245
6.7677584 -9.3472471 1.6494293
6.6913505 -9.3423357 2.207278
6.6586208 -9.3839102 1.6476419
6.5692372 -9.4075823 1.6455501
5.4025021 -6.5447445 0.25796023
6.484704 -9.443037 1.6453835
6.4636765 -9.4522018 1.6454103
6.4118986 -9.4435978 2.2037516
6.3516221 -9.4793968 1.6429307
6.2674809 -9.5159349 1.6433095
6.179975 -9.5430145 1.64245
6.1816001 -9.5497093 1.3672814
6.1586027 -9.551259 1.6424752
6.1589465 -9.554184 1.366866
6.0728331 -9.5835886 1.6425748
6.0728416 -9.5855694 1.3667196
6.038547 -9.5488062 2.4859991
5.1102395 -6.6431952 0.25685754
5.0813441 -6.6460352 0.095693298
5.9612641 -9.6102161 1.6409136
5.962678 -9.6169014 1.3658525
4.9229217 -6.6512361 1.0467516
4.8889484 -6.7449989 0.5738759
4.871027 -6.7163172 1.0514582
4.8772616 -6.7447715 0.89414358
4.7666807 -6.7415428 1.0509216
4.7542496 -6.747427 1.0511559
4.7125921 -6.7429523 1.3741591
4.6654997 -6.7827272 1.0522919
4.4879394 -6.540782 1.330929
4.4940982 -6.5777521 1.1819514
4.4888029 -6.5486045 1.0251228
4.4676089 -6.474041 -0.17473759
4.4623423 -6.4655838 1.1659135
4.4674101 -6.5049191 0.72258043
4.4403362 -6.4154611 0.86569297
4.3940473 -6.2793946 0.85644501
4.3529763 -6.0793748 -0.23759955
4.3669243 -6.1733522 1.2636716
4.373713 -6.2180262 1.1300452
4.3709273 -6.2072597 0.85156733
4.3627434 -6.1667151 0.57733971
4.2685719 -5.7438364 -0.29062352
4.2661901 -5.8844204 0.45450264
4.2150817 -5.7219534 1.5662789
4.1836829 -5.6304173 0.92825747
4.1658721 -5.5685754 -0.24001646
4.0823026 -5.3260117 0.47979477
4.0757909 -5.3333187 1.4481255
3.671706 -4.1053739 0.41357833
3.6712806 -4.0816522 0.23315278
3.6702509 -4.0845995 0.71047843
3.5963657 -3.8412282 0.2865504
3.590852 -3.8336728 0.44427255
3.5886083 -3.8346453 0.84682447
3.572897 -3.8463967 0.54439873
3.5721884 -3.8278365 0.69449925
3.5707219 -3.8296149 0.495022
3.573107 -3.7996273 0.89221168
3.5702081 -3.8135483 0.6441471
3.5703704 -3.8032637 0.44736239
3.5725687 -3.7782137 0.83746934
3.5730865 -3.7489674 0.25484809
3.5716701 -3.7585332 0.9870078
3.5638564 -3.7347312 0.98052186
3.5599794 -3.7355502 0.92902094
3.5559759 -3.7352223 0.83051598
3.5551162 -3.7389412 0.73574436
3.5510471 -3.7350068 0.54910797
1.0629228 -6.0723162 1.553432
-0.028152721 -7.4768853 1.9255887
-0.2035162 -7.0051336 1.6409931
-0.31197834 -6.6662827 1.6100844
-0.31165841 -6.640348 1.6068245
-0.35683355 -6.5321908 1.1678619
-0.36126319 -6.5128007 1.3807822
-0.2969189 -6.4469934 0.95062619
-0.62781483 -6.0859933 0.94948274
-0.46567583 -5.9103451 0.93525118
1.9042943 -3.9417253 0.49046203
-0.73935008 -5.6562967 1.761394
0.82125872 -4.4419918 1.6329581
1.8229167 -3.7778497 0.74895459
1.347307 -4.0893922 0.46318224
0.56701857 -4.5384841 1.1167018
0.55857998 -4.5316424 1.5549501
0.95892984 -4.2344017 -0.31759074
2.4126737 -3.3355131 0.76425147
0.27017954 -4.6241903 1.4669616
0.40497333 -4.540967 1.1349096
0.99147689 -4.1617384 0.083692327
-0.025049215 -4.7248573 1.8819094
1.1222557 -4.033319 0.45472935
-1.0942448 -5.0351124 0.93521088
-1.1002419 -5.0371037 0.7339614
-1.0781776 -5.0222993 0.33443719
1.4470962 -3.6688461 0.76433909
-0.28046417 -4.5395164 0.213691
-1.2225882 -4.9304085 1.1419284
-1.1925876 -4.9137092 0.93684465
-0.57404882 -4.533144 -0.16754201
-1.3287076 -4.7461638 0.32844254
-0.54466468 -4.330122 0.02521052
-1.3203713 -4.6385036 1.3433522
-1.4056107 -4.6394682 2.2250245
-1.2196288 -4.4950404 0.14035492
-1.4274391 -4.5553279 2.2215686
-1.4319996 -4.5386209 2.2209885
-1.4609416 -4.4392161 2.2183423
-1.2875886 -4.3404441 -0.061172385
0.80552387 -3.5670233 -0.1477793
-1.4952463 -4.3420014 2.217912
-0.1269494 -3.8041878 -0.057670146
1.2557701 -3.3310935 -0.13626707
-1.5277504 -4.2441883 2.2174911
-1.5069211 -4.237597 1.9850534
-1.5386235 -4.229681 2.2191229
-1.5297647 -4.1556005 -0.08253514
-1.5301517 -4.1377735 -0.081942588
-1.5672094 -4.1305418 2.2181613
-1.3624994 -4.0303521 -0.25849208
-1.6050335 -4.0341396 2.2205186
1.3609241 -3.1405458 -0.093026124
-0.064941227 -3.5190456 -0.34235364
-0.54487932 -3.6384282 -0.28533486
-1.6327645 -3.9346609 2.220403
-1.6154512 -3.930264 1.9884852
-0.89640921 -3.7170761 -0.35699937
1.3847401 -3.1102648 -0.084471077
0.14689013 -3.4259019 -0.28798965
-0.97610664 -3.7068508 -0.37186828
-1.6651893 -3.8363142 2.2222269
-1.6506915 -3.8329353 1.9907717
1.219039 -3.1033053 -0.12875935
0.47129005 -3.2527161 -0.34088418
-1.6450841 -3.7397671 -0.29082993
-1.7042592 -3.7392025 2.2265418
-1.6794446 -3.7337153 1.991871
-1.7268388 -3.673373 2.2286882
-0.95254695 -3.4854321 -0.35741591
-1.6920627 -3.6333838 0.12162124
-1.7368919 -3.6401231 2.2294869
-1.7073352 -3.6340952 1.9932191
-1.724177 -3.6364083 1.7783353
-0.68775886 -3.4004705 -0.30237037
-1.7348795 -3.5869231 1.9974841
-1.1866744 -3.4574256 -0.20921639
-2.2566342 -1.7444397 2.3566563
-2.2852886 -1.6652694 2.3677523
0.46291104 -1.9892547 -0.32822856
-2.2806649 -1.5709844 2.3703249
-2.2721357 -1.5342306 2.3695359
0.61508042 -1.9113398 -0.2897805
-2.2466881 -1.4050632 2.3685758
-2.2302349 -1.3316727 2.3678367
-2.2257462 -1.3134079 2.3675838
-2.2119441 -1.2395486 2.3679531
-2.6234372 -0.92722631 2.2357526
-2.1513746 -0.98368877 2.3677652
0.50845289 -1.6304507 -0.19820587
-0.017942505 -1.4822159 -0.32822287
-2.1232977 -0.91341746 2.3651202
-2.0960443 -0.76515019 2.3692243
-2.0229239 -0.6306625 2.3606529
-1.9265131 -0.38729888 2.357558
-2.8205414 -0.059989668 2.3457744
-1.9079293 -0.3344872 2.3579464
-3.0320029 0.28868139 1.5845482
0.55878526 -1.1195741 -0.36622778
-1.8239079 -0.086398698 2.3626447
-1.6850983 0.055468552 2.3431876
-1.730792 0.15924416 2.3679497
-3.2334864 0.89272553 1.0711836
-1.7226752 0.17615186 2.3679953
0.65636081 -0.93951511 -0.36173618
-1.6174027 0.31176594 2.3587458
0.77415669 -0.75975186 -0.355562
-3.3223386 1.6193703 2.3185644
-1.5469539 0.67577434 -0.38567746
-1.4257635 0.65326667 2.3595264
-2.2385881 1.3192112 0.51548165
-3.1259091 1.9716269 2.3229818
-3.0798373 2.029227 0.20282963
-3.0095615 2.0456674 2.3115237
-1.2825494 0.93886733 2.3698652
-2.8958941 2.0868962 0.20924909
-1.2694284 0.97530764 2.3727465
-2.5262609 1.8763287 -0.33481973
-1.2101969 0.98002934 2.3595831
-1.8796748 1.4705043 0.26796174
-2.9261622 2.2318304 2.3196936
-2.8083034 2.207552 0.20986062
-2.6002109 2.0670264 -0.064678051
-2.9051199 2.2785857 2.3218932
-1.4424766 1.2522951 0.99327934
-1.1182437 1.0288769 2.3463166
-3.2277324 2.5470679 1.7582711
-1.1768365 1.1168952 2.3749363
-1.3473101 1.3262494 -0.17685783
-1.1195635 1.1447264 2.366538
-2.8148599 2.3997529 2.3219666
-1.1134115 1.1868228 2.3724711
-1.0230644 1.2121722 2.3563852
-1.434528 1.5795546 0.52417374
-2.7521358 2.6191087 -0.40965053
1.0497955 -0.32748461 -0.35721081
-3.4356067 3.1802735 1.8322804
-2.5687616 2.5393615 -0.38572761
-1.0333329 1.314821 2.3771188
-2.2237651 2.2832906 0.23197293
-1.0171516 1.3260075 2.3755207
-2.5703816 2.6552694 2.3153675
-3.4736359 3.4028554 1.1698705
-0.94771796 1.3664876 2.3674679
-2.5485232 2.669807 2.313818
-1.7322454 2.0339484 0.25881878
-0.9247334 1.3718758 2.363378
-3.2164061 3.2513824 2.1541011
-3.5203738 3.5041308 1.8687725
-3.5362468 3.5282958 1.1777396
-2.5205996 2.7116773 2.3150108
-3.5310705 3.5504565 1.8738958
-0.84768599 1.3566343 2.3435669
-3.5377345 3.5937424 1.8783591
-3.5607741 3.6176443 1.5298802
-3.5375676 3.6306224 -0.20798621
1.1261102 -0.23783202 -0.35601017
-0.8137325 1.3523996 2.3353224
-3.5183113 3.6155508 1.8783273
-3.5279572 3.6607795 -0.20890817
-0.79974878 1.3646395 2.3345549
-2.4688168 2.7663472 2.3142476
-3.5060449 3.6806543 -0.20846552
-1.6406009 2.1354856 -0.001157084
-3.6424356 3.8407905 1.5501679
-3.4916189 3.7334239 0.48795715
1.174243 -0.22281455 -0.34838879
-0.84024549 1.4714891 2.3635521
-2.4150722 2.8192327 2.3130777
-3.6528065 3.8958457 1.198012
-1.9144353 2.4285462 -0.035089739
-1.7072968 2.2570932 -0.28099787
-0.8159253 1.4997909 2.363683
-2.3861563 2.8603725 2.3142753
-0.8281945 1.5367141 0.53165919
-0.81821102 1.5264848 2.3692889
-3.4382582 3.8121374 2.2458248
-3.5294993 3.9754639 1.9116681
-3.7307656 4.1651769 1.2127211
-0.7703644 1.559127 2.3653324
-2.3187175 2.9343979 2.3142209
0.77591795 0.24754298 -0.35298583
-2.2853932 2.9717453 2.3143997
-3.5597832 4.1233072 1.9281368
-3.5659769 4.1697326 1.9330109
-0.71976912 1.6140717 2.3653228
1.2696017 -0.1375906 -0.34393257
-2.2209444 3.0484729 2.3155792
-3.5694025 4.2968531 1.945125
-3.8414958 4.5527844 1.6115741
1.275382 -0.1285291 -0.34442759
-1.3478863 2.2717741 2.3436024
-2.205399 3.0682006 2.3160794
-0.65795296 1.6585721 2.3611598
-3.6865339 4.4898138 1.9743502
-3.9358189 4.7277446 1.6299897
-3.9276359 4.727829 1.2453142
-3.9688711 4.7973866 2.0300894
-0.6226905 1.6765355 2.3574162
-0.83523345 1.9471022 -0.17504123
-2.1274149 3.1668596 2.3187895
-2.1051242 3.1802278 2.3174498
-4.028893 5.0419679 1.6580223
-4.0616298 5.1138625 2.0688503
-4.0279655 5.0873661 1.6611304
-4.074543 5.1731429 2.0757325
-4.061408 5.1746926 1.2706164
-4.0604191 5.2269602 0.87122869
-2.0157018 3.2328646 2.3120918
-4.13623 5.3283114 2.0963941
-4.1274714 5.3259339 1.684523
-0.83053362 2.1085105 -0.18795694
-4.126328 5.3665285 2.0991728
-4.1324763 5.3789105 1.6886003
-4.1316452 5.3865457 1.2829926
-1.2323872 2.537765 -0.25974977
-4.1527743 5.4411402 2.1088452
-4.1299057 5.4395237 0.87636477
-0.46078035 1.8433695 2.3519278
-1.9018775 3.3181083 2.2959659
-3.0642519 4.5084195 2.2672684
1.4443122 -0.043184925 -0.34333909
-1.4024616 2.9035285 -0.3253009
-0.41846192 1.9070519 2.3571744
-1.8191991 3.3762686 2.2934713
-0.50896752 2.0532305 0.060641151
-0.94338167 2.541918 0.0039423751
-2.7788877 4.5617633 0.12028674
-0.32002223 1.9114137 2.3392754
-1.7040696 3.5043542 -0.40372869
-0.31506476 1.9605685 2.3489316
-1.7240176 3.4937191 2.2988765
0.75133008 0.85204428 0.044355903
0.76939303 0.85937089 0.54374093
0.78124976 0.95080364 -0.13231064
0.88160336 0.92031711 -0.11757742
0.7215836 1.1122216 -0.33825147
-1.4942964 3.6483569 2.2932782
0.84569389 0.94385779 1.2079298
0.87909061 0.9473899 0.38040453
0.87909973 0.95624793 0.87441838
1.6584657 0.076002769 -0.32621443
0.89287114 0.95277852 1.2051073
-1.3909233 3.714812 -0.39479995
-1.5041891 3.8146698 2.3217332
1.0718287 0.77317923 0.703251
0.85218894 1.057364 0.035070151
-1.4169663 3.8678706 2.3194802
-0.019885261 2.2166505 2.3522632
0.97346044 1.0293972 0.3812446
1.6773005 0.18481636 -0.34563231
-0.67826325 7.3468952 -0.30487448
2.955127 -0.59807342 0.032378748
-0.30859724 6.4964581 2.3094323
0.8928231 3.9058003 2.3599124
0.37969369 5.1056876 2.3606725
-0.22440727 6.531146 2.3097296
0.98536384 3.9098516 2.3522134
1.3737912 3.1163297 2.3807988
0.49716586 5.1562753 2.3616025
-1.1177927 9.0184526 2.2975821
1.0835944 4.0087991 2.3664289
0.77124566 4.9590201 -0.36713213
-1.157665 9.7210627 0.46234125
-0.9082858 9.1151934 2.3008454
0.080900483 6.746994 2.3267453
1.186299 4.0433135 2.3657012
-0.501661 8.5361004 -0.38550135
-0.69154006 9.1942501 2.3021088
0.29395679 6.7886739 2.322027
-0.62179816 9.2271204 2.3036041
-1.7918535 12.521559 1.6015928
-1.9401948 13.138336 0.42943671
-0.51503718 9.2709951 2.3051791
0.40247941 6.846674 2.3260193
-0.41550833 9.3353634 2.3098459
0.47977075 6.9025793 2.3314462
1.0842017 5.3355904 2.3576097
3.3192496 -1.0435727 0.42176819
1.5542951 4.1690292 2.3670213
-0.20198628 9.4258862 2.3140879
-1.596191 13.600986 2.2837269
-1.4949703 13.461634 2.2679791
-2.0770786 15.256098 1.7738249
0.67474115 6.9949889 2.3376477
-1.4938711 13.623364 2.2835889
-1.3997203 13.670671 2.2861071
1.2785343 5.3960199 2.3586259
-1.3060861 13.720272 2.2889233
-1.2044054 13.744611 2.2891812
2.0738807 3.2374704 -0.33560041
-1.1591935 13.775102 2.2912316
-1.1210338 13.829284 2.2957466
-1.0159507 13.842916 2.2950225
0.98860365 7.123219 2.3458385
-0.97582829 13.891987 2.2990487
2.0842209 3.4217141 2.4017086
-0.90840203 13.847269 2.2934089
-1.3179928 15.52278 1.7831293
2.3875399 2.5933416 -0.22352538
1.5823441 5.5372009 2.3719888
-0.18711102 12.014736 2.1008308
2.1760385 3.4444706 2.4017317
0.47564098 9.7264271 2.3331733
1.189755 7.2040868 2.351907
1.2862413 7.3240662 2.3689547
2.9813445 0.86306465 -0.34125096
0.68984038 9.830596 2.3416557
2.4735329 3.0750554 0.34337807
0.87776136 9.8835211 2.3443868
2.4225364 3.4742646 0.10118468
1.9638207 5.5247841 0.22919564
0.99867165 9.8798914 2.3412614
1.5797381 7.4367561 2.3790021
2.0768857 5.3639269 0.23820837
1.913703 6.1750298 0.84489655
1.4910661 8.2261791 -0.2962501
1.1053687 9.9389877 2.3470728
1.1821586 9.9533148 2.347517
2.2621007 5.1947846 0.24885635
1.8088735 7.4067039 2.367615
1.2906314 10.007914 2.3529301
2.2816327 5.2200871 0.24812126
2.5786965 3.646358 2.4362547
1.1838567 11.060246 1.4847171
1.896793 7.4419723 2.3715591
1.2749716 10.808424 1.4682835
2.7726278 3.1902325 -0.29636601
2.4098699 5.18961 0.25167793
2.7644513 3.3363767 -0.31887805
1.7023026 9.4752855 2.2736192
1.6963074 9.6039944 1.3898377
1.7849103 9.3104019 1.3707709
2.8311906 3.4158752 2.358804
2.864753 3.4755473 0.77218163
3.0692334 2.1553085 1.9842826
3.0633674 2.3467546 0.56339633
3.3546281 1.5573244 1.8016613
3.4653776 1.3491448 -0.28973705
3.6052697 1.1177697 1.669178
3.6716511 1.0901197 0.97074658
3.6699319 1.2047307 0.84747946
3.7678573 0.2112416 0.28820032
3.7958534 -0.96936131 0.42701781
3.8274546 1.114326 1.668659
3.8421748 1.5833625 1.8066735
3.9740949 1.7536485 1.8588986
3.9605587 1.3648868 1.5872812
3.9314244 0.34944212 0.68982995
3.9220507 0.048383538 0.49603382
3.9471037 0.25351641 -0.13986738
3.9382775 0.22766693 0.48830903
3.9121692 -0.50173026 0.44692668
4.0542226 1.7822722 1.8692048
3.9937339 -0.64763528 0.10358758
4.0178213 -0.5656836 0.15917273
4.1938434 0.79045904 -0.15522893
4.1364326 0.02780897 0.020823015
4.1962237 0.02677919 0.11874224
4.2137532 0.067100018 0.01002133
4.1945891 -0.083286278 0.13969365
4.2000351 -0.084462218 -0.053287547
4.3420095 0.91075033 0.96248436
4.3351865 0.6507417 -0.12650415
4.4163818 1.1548404 0.31459081
4.3764868 0.87630862 0.083204575
4.403266 1.0202647 -0.074356861
4.4082823 1.0229292 -0.21346191
4.3910246 0.82307476 -0.036689069
4.308157 0.34001383 0.37959391
4.3847847 0.70554894 -0.14048031
4.2690287 0.084518619 0.49588233
4.2729068 0.092145957 0.3993744
4.474165 1.1020747 0.98510909
4.4769602 1.0652404 0.45387453
4.4833364 1.0645858 0.7170794
4.4642682 0.85240424 -0.17648898
4.5357466 1.0575563 1.6803154
4.4138641 0.31516099 0.27437541
4.574728 -0.063902855 0.59442878
4.4290333 -0.7282995 0.46146145
4.4920745 -0.58560175 0.44952303
4.4112496 -0.8415724 0.27301705
4.5826664 -1.6514184 0.3025561
5.3474593 -1.7326952 0.98766732
5.3696623 -1.7228425 0.86114562
5.3702712 -1.7264091 1.1319106
5.3470402 -1.7466106 0.41854492
5.3723965 -1.7355683 0.35110939
5.2713132 -1.7811968 1.0314219
5.2233062 -1.8053914 0.95584899
5.1426482 -1.8493036 1.0539213
5.1631737 -1.8410913 0.82647443
5.1641603 -1.850107 0.27122772
4.761138 -2.0389304 0.925345
4.8638067 -1.9933474 0.56405324
4.5649028 -2.1367223 0.85917932
4.9751363 -3.1395638 0.6525349
4.9756918 -3.1402788 0.5560419
4.975328 -3.1442509 0.70126581
4.9740391 -3.1436193 0.65254623
4.9752226 -3.1493621 0.55584335
4.6490073 -3.1447361 0.64217395
5.0769062 -3.5538006 0.29729247
5.2114725 -4.0308437 0.13446663
5.3300056 -4.2079134 1.2872168
5.5648527 -4.914896 0.15349308
5.8552656 -5.3640456 1.104166
6.0740266 -5.8189106 1.025136
5.7221112 -5.400116 0.33544591
6.1862097 -9.5477228 1.9168254
6.1152101 -9.5545759 2.1965084
4.981483 -6.6431799 -0.060552374
4.80511 -6.7437134 1.046392
4.7771621 -6.7429771 1.2064232
4.4631591 -6.4774094 0.86404204
4.3879457 -6.2337446 0.84760225
4.3626366 -6.1552701 0.16672538
-0.22282191 -6.8447485 1.3764938
-0.26723954 -6.8921347 1.1636394
-0.36511725 -6.861517 1.1672871
-0.38071558 -6.8244038 1.1656052
-0.37707856 -6.7688432 2.0648549
-0.39086562 -6.7307396 2.0603936
-0.38212833 -6.6194954 1.5877148
-0.43231928 -6.6680279 1.1578895
-0.43370736 -6.6449533 2.052567
-0.33655313 -6.5250397 1.5710667
-0.4535284 -6.6377859 1.157144
-0.43830997 -6.4491181 2.2542722
-0.42599079 -6.43929 2.0158439
-0.4146027 -6.4280524 1.3534886
2.1951461 -3.9916475 0.81011325
-0.62670857 -6.0329728 1.765969
-0.64022946 -6.0407233 0.9240787
1.7414656 -4.1394424 0.17305367
-0.55275232 -5.9276142 0.91618145
-0.67542785 -5.9389706 1.7615061
-0.72817159 -5.8481703 2.2054081
-0.71825022 -5.841465 1.7560612
-0.73293465 -5.7882471 1.7518457
-0.73288113 -5.7676339 1.966469
-0.7496708 -5.7375202 1.9653856
0.90836322 -4.2742319 -0.35314524
1.4040314 -3.9620697 0.65960813
-0.39608735 -4.8532815 1.9705842
-0.64204836 -4.9375343 2.0428579
-1.1179818 -4.9085717 1.1079127
-0.90116906 -4.7969623 0.3232269
-0.5878011 -4.5968761 0.69682086
-1.0435628 -4.3045273 0.70148689
0.39009342 -3.7628105 0.0041856691
0.90930277 -3.5266633 -0.13899709
-0.4762634 -3.9056695 -0.13902456
-1.5114305 -4.1406569 -0.10660943
-1.2311823 -4.0003443 -0.26296934
1.4006433 -3.1955552 -0.10272194
-1.3701586 -3.9383142 -0.28232056
-1.1216247 -3.8397171 -0.048114598
-1.4798343 -3.9338291 -0.29964256
-1.6302671 -3.9601376 2.1975174
-0.76248169 -3.6922967 -0.35461769
0.032874968 -3.4563501 -0.3379001
-1.0934747 -3.7194746 -0.040836949
1.234483 -3.0996823 -0.14147629
0.50730878 -3.2479079 -0.35130367
0.51535183 -3.2354343 -0.34831578
-0.90501928 -3.4243913 -0.37092921
-1.2002023 -3.4524229 -0.23691031
-1.7746899 -3.5315235 2.2103119
-1.7586105 -3.528594 1.9768571
-1.2216183 -3.414542 0.14091888
-0.73545325 -3.3187661 -0.33307064
0.43750933 -3.0909908 -0.3619726
-0.31292787 -3.1790004 -0.084532805
-1.7927114 -3.4288139 2.2103012
-1.7861751 -3.4277337 1.979198
0.38722771 -3.0348973 -0.37340426
-1.0408401 -3.2410071 -0.022303822
-1.2696936 -3.2600582 -0.051663693
-1.435727 -3.2651615 -0.27020341
-0.98069459 -3.1966932 -0.37831977
-1.8278811 -3.3285925 2.2157423
-1.8186368 -3.3271973 1.9832021
-1.5327945 -3.2625806 -0.28602716
-1.6981766 -3.2791948 0.3037065
-1.8332262 -3.2940755 1.9855599
-1.435727 -3.215837 -0.26905152
-0.87564951 -3.1333494 0.34916091
-1.0209701 -3.1420047 -0.38488492
-0.65286881 -3.0892372 0.36150479
-1.0404162 -3.1294255 -0.38846853
0.35556132 -2.9422667 -0.37855679
-0.0010739765 -2.9787595 -0.32457969
0.38858524 -2.9273334 -0.36875597
-1.8746119 -3.2291081 2.2250054
-1.8647088 -3.227762 1.9909868
-0.32804403 -2.9980547 -0.24134488
-0.0618538 -2.9622414 -0.33870491
-0.084305078 -2.9565098 -0.19110805
-1.4175683 -3.1055021 0.12745377
0.037727177 -2.9268076 -0.31372514
-1.6550645 -3.1128731 -0.098125093
0.13792823 -2.9075212 -0.14505219
-1.8860664 -3.1421525 2.225311
-1.4287978 -3.0515385 -0.26458421
-1.8633014 -3.0797575 -0.33652258
0.41951931 -2.8413086 -0.21947864
0.33537441 -2.8352835 0.15927194
0.38180012 -2.821445 -0.36734381
-1.8713677 -3.0277097 -0.33698079
-1.9179798 -3.0394506 2.2313464
0.48707753 -1.8943501 -0.34684697
-2.2196681 -1.3742485 2.3421803
-2.5245836 -1.2336591 1.9229902
-2.5197489 -1.1346848 0.25817496
0.88602471 -1.8262572 -0.23991047
0.89496183 -1.7332096 -0.24337834
-2.6169271 -0.72713816 -0.24207395
0.60519528 -1.5401419 -0.33629963
0.57999027 -1.2665205 -0.36666828
0.67659646 -1.1001974 -0.35843748
-2.8164353 0.75393504 -0.32665154
-1.5248842 0.45601073 2.3416431
-3.4409294 1.7042527 0.1677894
0.90899283 -0.71208805 -0.34891236
-1.9175431 1.109386 0.25366077
-3.5024791 2.1477315 1.4152639
-1.2400585 0.73890126 2.3157442
-2.1138208 1.3492147 -0.28152865
-3.2620258 2.0964227 3.009795
-3.2610769 2.20205 0.16518225
-3.2178745 2.2440596 1.3994309
-3.2191434 2.2513652 1.0914997
-3.0125368 2.1279719 0.17853346
-1.8030128 1.3148403 0.0059221429
0.48060212 -0.17433487 -0.36660826
-2.9830835 2.2705379 -0.12728503
-1.4144877 1.2460251 0.9751507
-1.3141129 1.3380996 1.2072588
-2.6660607 2.4849887 -0.41654253
-3.3577623 3.0548904 0.79769593
-2.2860615 2.2660644 0.20823364
-1.6634578 1.8488872 -0.26786116
-3.4384122 3.2473998 1.4762212
-3.434236 3.2517383 1.1399064
-1.5318688 1.756428 0.25539806
-1.5144532 1.7572697 -0.24599655
-2.2225721 2.4288082 0.2066987
-3.5342352 3.5026586 1.8495011
-1.4189153 1.7992407 0.25924149
-3.5374081 3.5492706 1.5025032
-3.528995 3.5503795 1.1561852
-3.5667827 3.6050603 1.8617296
-3.5071363 3.6020765 -0.23043212
1.1899046 -0.29386818 -0.35022652
-2.5293918 2.7694788 2.308408
-3.6247945 3.8804793 0.46156555
-1.8312033 2.3535161 -0.046366237
-3.628653 3.9235196 0.46131852
-3.5032151 3.8940692 2.2443242
-3.7492664 4.20504 1.5604049
-2.3274682 2.9616413 2.3046942
-3.834991 4.4077249 1.5798777
1.2791904 -0.16152687 -0.35475209
-2.2424309 3.0886872 2.3104382
-3.6072509 4.3617921 1.9350803
-0.63859922 1.7320443 -0.15750593
0.88036269 0.30314475 -0.36046913
-4.041245 5.0358124 2.0388694
-4.0384674 5.1526423 0.84637409
-4.0756245 5.2361841 0.84848315
-0.58207923 1.9083399 0.064086355
-1.2494998 2.5864441 -0.28473511
-4.1701193 5.5147767 1.2681116
-4.1359382 5.4889832 0.85434806
-0.64426011 1.9982466 0.054850321
-4.2310119 5.6059504 2.1114078
-4.182013 5.576098 1.2714081
-4.0702586 5.4912453 0.039136019
-1.8647572 3.3107989 -0.4019295
-0.4327265 1.9117118 2.3735573
-1.0050648 2.554909 0.26532373
-0.52439117 2.0592604 0.068099461
-0.41981086 1.925388 2.3739798
-4.2066393 5.9643517 2.1696928
-0.88612688 2.5003254 0.020354938
-0.37816703 1.9633882 2.3741357
-0.30869576 1.9988159 2.3685973
0.6650154 0.95833844 0.88748735
0.68168056 0.96133256 0.88704729
1.5734063 0.029230453 -0.3321
1.5786242 0.039020855 -0.3330816
-0.26204279 2.0589859 2.3730733
0.73744744 0.95855683 1.0535218
1.1833569 0.53755069 -0.34577259
-0.21603166 2.0918989 2.3718417
0.83146733 0.97784925 -0.29981452
0.88263774 0.89176172 1.3732853
-3.8168466 6.3337755 2.1755919
0.73707098 1.110202 -0.3314735
-0.7252261 2.8403428 -0.24905944
-0.12199049 2.1548777 2.3688226
0.87453711 1.0467024 0.042292181
-0.089608818 2.1744668 2.367445
0.92609942 0.96859097 1.3791986
1.6778454 0.11478021 -0.3302483
1.2818111 0.63178521 -0.34676573
1.6787783 0.14665961 -0.33671671
0.97378856 0.97594303 1.3752762
-3.4233732 6.417295 2.1529553
-0.02034341 2.2373958 2.3695729
0.058831193 2.2879682 2.3675241
0.96346235 1.1589448 0.88788813
-0.40376222 2.93239 0.27588472
0.073563688 2.2994401 2.367672
0.9963389 1.1629381 0.8870616
1.0053412 1.1692741 1.0554178
0.11598533 2.3670442 2.3763499
-3.0133095 6.5411654 1.3038193
1.7900122 0.22473925 -0.3337867
0.22069488 2.3517761 2.3551905
-1.0169446 4.1180367 2.3302743
0.2169317 2.5688329 0.30921936
-2.0453613 15.08701 1.8001523
1.8290058 3.5022516 0.31955212
0.64515495 7.057591 2.368149
-1.5637802 13.771072 2.3337443
0.67574686 7.0634995 2.3677075
1.8831511 3.4611475 0.32234529
2.1043427 2.8921432 0.34963435
1.2849406 5.4419117 2.3825707
2.6607988 1.2408193 -0.30730781
0.072899759 9.6710587 2.3616502
1.387833 5.45541 2.3796322
-1.1274745 13.963609 2.3429084
1.5901952 5.0337248 -0.32458973
-1.0780506 13.982483 2.3437369
0.97249836 7.1493335 2.3691607
1.0007616 7.1627073 2.3702748
1.6574373 5.0616179 -0.32494217
-0.92524785 14.023864 2.344708
1.6803734 5.0691895 -0.32486489
1.0864178 7.2004361 2.3732722
-0.82130444 14.043959 2.3446467
-0.1284831 11.913027 2.1181529
-0.1398242 11.993911 1.5794469
1.1653016 7.2640176 2.3811224
0.59127802 9.8507681 2.3704424
3.4173164 -0.90966576 0.1544584
0.62475508 9.8778353 2.3732283
0.69719023 9.9115276 2.3759174
0.20295282 11.953441 1.5738174
0.77368981 9.9294043 2.3764076
0.88511431 9.9702797 2.3792732
2.3867335 3.670604 0.3237493
0.50896132 12.050948 1.5779396
0.99659956 10.012089 2.3824143
1.9904519 5.9156651 0.85053343
2.1988819 5.0014424 0.26623562
1.1094428 10.049029 2.3850052
1.1461258 10.065961 2.3865571
2.18207 5.3114514 0.25328061
1.1837003 10.078907 2.3875585
0.88974839 11.964283 2.107306
2.173512 5.7686148 -0.073821366
1.302182 10.089877 2.3867049
1.0000668 11.642424 2.0732222
0.9914639 11.969119 1.5697631
1.3759539 10.123476 2.3899469
1.2112994 11.014688 2.006834
2.1434319 6.240684 0.86062962
1.3119456 10.710807 1.9747342
2.1210296 6.5070648 0.8686294
1.4066464 10.477764 1.4692878
2.5470958 4.3961592 0.55169684
1.5053952 10.074191 2.3808138
1.507028 10.104528 1.9107927
2.4527557 5.0376358 0.54739958
1.5739589 9.9154987 2.3576739
1.5796046 9.9727268 1.435154
1.6713157 9.5887766 2.3107965
2.7110403 3.833298 0.55619615
1.7390732 9.4196434 2.2862558
1.9044166 8.8841619 2.2094033
1.9041661 8.97264 1.3677182
2.7176805 4.1559734 0.55451435
1.9671022 8.7218628 2.185936
1.9549832 8.8342981 1.7766593
2.8023186 3.7635036 0.55738306
2.0227621 8.5964413 2.1677067
3.0556483 2.2491343 2.0181217
3.4760253 1.1116307 -0.23439685
3.739511 -1.0553231 0.26748857
3.6724555 1.2479619 0.71437699
3.8317134 0.00032634314 0.49553603
3.8386457 -1.0502986 0.20923796
3.8546746 -0.75134385 0.52716076
3.8762815 -0.56698573 0.51958042
3.9129887 -0.082379386 0.49951941
3.9276392 -0.049152598 -0.060315099
3.9708188 1.5435613 1.6349669
3.9694924 0.22808196 0.38690278
4.0361972 1.5269053 1.3204967
3.9620857 -0.043105651 0.40811035
3.9700553 -0.036586981 0.40762055
3.9780023 -0.031089028 0.40720868
4.0293465 0.11830979 -0.00065700646
4.0579376 0.33160681 -0.16392119
4.1583982 0.47924379 0.36737764
4.111764 -0.072992586 0.041691002
4.2013783 0.16595554 -0.12286799
4.2000751 0.08315672 0.10544758
